24.557678666132364,0.1861194159059383,-446.2717840927142
-6.089980067919981,0.1486340258578532,-141.40004697601717
-0.006983731530909128,0.14428737248352355,410.56929703559274
52.82438454259193,0.23261566000243514,57.61790898639602
38.215882594989246,0.22231494457588147,138.22092326329022
27.56019213273603,0.13258060350514228,41.23905923440864
3.483792986574436,0.06998679519706433,69.06478121009589
-10.563187524456215,0.20194803821986024,-214.93693726237436
40.80352314261562,0.23513620066272412,-280.95415943795274
24.46079973732453,0.14177748447639948,375.34050250591685
18.478849691227726,0.16991363568159987,-156.22523604599573
4.848110033149051,0.2074104091297724,219.03415832111364
4.762726961562159,0.21950510029077105,33.51286722280049
-21.845461015942877,0.16925389450502387,-279.4320074083007
-17.008796421101653,0.2532182885239642,-266.13315181146965
-14.442763094202808,0.09588847403614187,-490.72154593774025
9.056234113253204,0.28140227853847577,-391.48869204328304
6.306337009097204,0.2586124365229128,285.622436866198
20.743487606041874,0.16871858827352032,57.244822909698335
-39.04373106029436,0.1550162760159985,-214.63857635863502
-35.48629983995036,0.20520926570133058,394.05355393567316
-26.60521785048717,0.12766122511310846,59.71234371407385
-0.8490382022157011,0.1710791143467811,103.38093953175624
19.96957164991478,0.21040223501934657,-248.49749834744878
-16.635421888631758,0.24939114711224228,-186.65524023117877
-25.97361326475387,0.11578208499528031,5.5615738325749176
20.358573529357756,0.23453445086375424,227.16585636179127
14.389810596551015,0.15674298746835957,170.43065759355903
7.782029547979326,0.1703620942792991,-55.62416063161787
12.327275595871379,0.23604817356360414,12.930701897790197
-15.082404087210712,0.16205900201420842,-132.58419945307088
-5.879243606889014,0.2375923704992704,41.52030586663505
-17.469930113762672,0.17909254472399339,-79.32232035008853
9.913324551092023,0.1380171436646739,59.421496041902365
8.006928708633986,0.12255391012897016,-99.9746736356578
16.66103372129122,0.19158651774723168,60.58435956541073
-34.025533169229455,0.19043106839539664,218.5558660702211
26.252951118053364,0.24480222273950414,-197.07656874932638
-27.50142212681135,0.19660616023347324,67.55344880740867
20.861019396676195,0.15806563284631311,438.14724715960995
17.62733379672301,0.22198409925306115,-45.736551119150334
2.345611301497485,0.10216138648790168,569.5550409381416
2.0415272553587966,0.24390320270994453,97.68191409266082
8.566322937557318,0.1580600672375373,55.97123687355007
28.504134891985974,0.2634800195721363,203.83910229871373
16.679209484701975,0.20671213797527957,164.39784212647157
-32.60772846904644,0.1949018315870142,-24.692266280760357
-5.381311123323526,0.1382018200581427,13.447994461334204
-8.403197583508998,0.1980592876483357,-233.62791993030632
-22.317171690908864,0.13107088138266249,5.316923107574166
-30.80409034654381,0.22037888888256868,-49.33644358946256
-19.344111796213884,0.16962465590115167,-117.68078867314182
-14.22997604529809,0.21834271840704864,-137.3353834639893
0.6970381235007248,0.1843365466595484,-87.87190534649864
14.99070294375814,0.22569366320247636,-240.14454312441677
-10.051637192603803,0.19983663309880342,235.24893067971612
-0.18192459321573065,0.15570969750261668,163.45462313507846
-5.324524850091863,0.2757938418529863,1.2754656111000695
13.992718660834466,0.1419582692660975,-315.1169282988614
5.071142017754538,0.09069838985691306,1.6674316223150367
17.39158792266145,0.22735793514244756,-107.62986977145228
2.8110625449375903,0.14947447797033092,163.56606315565259
-26.830569986614677,0.2029089175615435,-217.06346814657138
-6.852924997704114,0.12016212107176973,-112.27494850482873
14.54503689539795,0.20945506581280143,-270.7295251874641
5.157157462406367,0.2273023126657921,0.8560454449055933
18.996936029469204,0.14776089504968182,-220.0377396412552
-2.7680451814374423,0.1969562617813869,-129.9675837157199
-24.5724412417903,0.12212575973286899,-232.33105548941384
-6.004117682924273,0.07773787845835599,361.3552119019529
-26.061324178600046,0.21392932315147375,15.964435246140187
-11.637456175505449,0.25123906021193826,145.91798599553266
-20.746218635716488,0.16670172002303055,-15.465969941231291
-8.350090980771466,0.19514261306017017,90.5334546835083
-6.79453418345598,0.23953237570326563,-37.615008242159995
-15.978582874003813,0.21647548099794842,-29.366165656853433
3.609982958367116,0.12248835460842243,-6.338318612537163
-20.23424935675257,0.20594307321809002,252.32013332435878
-9.08094141082381,0.16918387758255032,-381.9405100452878
-0.11984375286212179,0.23327043838169945,-344.0513387340638
-2.3500926018734427,0.12305855257403595,-86.03542175240597
6.597710563321623,0.14938518857624902,283.18442056893554
-2.0234926830216007,0.2378693863721744,-224.78161426642242
4.250632379613547,0.17213277984719422,-149.48594415018178
3.977546110870475,0.19706623817689015,10.635722287789942
0.629581038719979,0.1881721334369946,356.82752011638024
11.992521598513438,0.2918281078431036,117.70690293045301
2.3252526308904353,0.10801969333706116,234.00631355397033
-7.085562892422539,0.13626559820035294,-103.86475100737604
4.487250398374871,0.18583454686136608,314.32375546651946
-19.172298037556608,0.09931687684557274,-177.17954932870822
4.621305346310827,0.26569655682985105,169.7795984745195
-11.25142348290175,0.22229159817475147,-166.75131608490645
21.67376094104148,0.1931475363294301,284.32490427457924
1.1696449363764942,0.11785197236698726,-70.88900827761118
11.095170611176579,0.1183721411617726,-42.54073604771242
-33.32144426143772,0.15538273372614006,-258.88214537126026
24.72860093954495,0.2007999665297248,7.131976640430966
5.015049022800678,0.3193599291426906,217.80881869520732
26.652977036177017,0.15173596202025283,8.578740076543244
9.570425491138,0.1314611742034469,-42.8202134885402
-22.569060525938532,0.16510139177244298,-423.21051087973774
-3.467442228120898,0.160091493707573,50.251663228300515
9.789473324395098,0.2003254011072417,587.327741452295
-18.452061145705883,0.26679826464589906,-49.6919638272479
38.957878090235205,0.26603416721603146,289.77560391260624
23.28273419415129,0.18081395792023167,-58.827522298589685
0.2695432274984584,0.22893081938730664,198.53151477411467
-3.5101899005148214,0.2635225935365427,115.1384171103234
-21.392178013873515,0.1985555233604196,-62.847780365302185
-1.005418157380615,0.19927014946145344,-99.40887982532716
-1.5676342491338238,0.18449671412691074,301.52828347483427
30.702586618876524,0.21186669622687246,-213.88392408068756
21.639939540113573,0.20255178278061517,-261.40401737741615
-20.665365341185794,0.2638438208219186,51.280415511312995
1.4851216576903472,0.2237407520898489,-242.35544035692564
14.178082912941708,0.1914657712601212,-185.52359103239917
-15.912782223488334,0.22439329172024558,-264.82697830078797
-8.767153886551691,0.20852463939683227,-78.25765717159852
4.7219614404305466,0.2640654978067563,-204.89179453309725
4.023560614233035,0.20851698999587054,-98.54297638387705
-1.1367074761088636,0.24835178036296734,-238.31761977136367
3.657808134761445,0.15519048805485833,-117.77258045166661
35.26494636044913,0.14852848405760888,-16.526301824370314
-13.069094882361282,0.13942914462101963,75.8064210782451
-7.997397219792157,0.20586832573246222,-113.47799316370053
6.164912023431057,0.20878540552962968,-18.52879308110596
-35.67014515880499,0.1668718547151303,42.06808242445082
17.18175885470587,0.17933684751754325,74.31480982265299
-38.609148886521396,0.29413030581406485,-37.317288073351854
-8.084661111125824,0.24272739382940994,178.12136710492382
-42.335233557870886,0.1726324329196338,14.994474443937216
31.98351743858793,0.26722870469090204,-27.97456565217707
18.130591105128726,0.18744822564567493,50.58890579367888
-16.17314997270413,0.1787836747784844,138.20717275137667
4.011052755051941,0.16240460060405412,232.5148303317293
-19.31031136495845,0.23141164114863733,165.0165952470093
-21.929122463396244,0.17193675749174062,380.1375096893796
42.37672770799613,0.25588682171451677,290.52699149762145
19.94109041037352,0.19874007077268718,171.29027030634333
-21.744844754544694,0.18675162722335079,285.5714300248103
-4.610352526362699,0.24813992119788253,-147.9348859850472
-1.4777635880466113,0.20280931519841122,236.45809821346342
-1.3491303817375813,0.17877050398336392,8.751982432845468
29.4950760445718,0.23582871212518328,-1.310593621826315
-8.059995017072946,0.18838559313473346,152.9070820797793
-0.4956934129210562,0.21406913596803132,197.8448266410705
-12.924914406934104,0.3079757256742517,552.133828728266
-29.08885511624035,0.13728500900544408,98.52758619863857
-57.685653926811504,0.17040043094962104,-6.163872543762759
-36.98917133681099,0.2788262328848289,-284.4864685607709
-19.32496802488394,0.21744839697793822,206.73538238637605
-10.618761971909422,0.203232703780575,196.80695811785424
14.696146313025123,0.16801018997044537,193.17817102163696
-31.57636453730746,0.19187870485060687,-316.7153887547963
2.590338284967303,0.19025828771743364,118.4264398583922
-20.238652402540467,0.24513027248742247,-503.0979089211142
-6.538499166534033,0.2885681411795156,91.04361294297685
16.59049060724901,0.21598540152068652,0.8441831529799678
30.542857238214445,0.24057737951388758,-40.71395999098476
-5.724896419031067,0.24696975305653118,235.3921608949906
-10.64050568755389,0.2262398941780337,-242.78059575803903
0.8588473308148945,0.21070631266354514,-427.45553198150395
0.9435660851962249,0.329677935054389,178.36436355911437
18.833961957751548,0.10440013469388024,272.2153959248096
-41.21366888962762,0.19647724031315417,78.92120152460026
-27.050036285028163,0.25487421075454386,-124.20576830001662
2.0327862675723907,0.17941282280140539,-69.53072299187679
-16.12411758739326,0.23076898549508454,4.927547686119633
-8.928875804238881,0.2702647738592602,-86.39484570604324
27.7991151736793,0.14049631554051945,59.34159962006533
26.014953272935752,0.18056820770923193,215.71933804893138
-17.082564849175647,0.19970111091740753,142.8270947959539
2.530110295370288,0.18896280753788375,-338.5942117672287
-0.016980226366922074,0.21000887027812873,279.0231802313392
2.5791802827931765,0.09250259918999842,199.1373471940924
-12.95332302524166,0.2449521346950765,73.50753615894986
8.504893886817117,0.2175244068755976,-135.35768676207664
-20.00435960075255,0.2064093275301684,121.33349839911003
12.774779174295583,0.24911350383139214,-56.49007744229411
7.932447450275477,0.20916691087575845,273.96634968785906
-14.110346517633424,0.04188915786085359,-227.60923167560003
-21.807800559563262,0.15370060738401575,95.27519840532244
-14.917610554508578,0.25523885679577396,-207.80318716980622
-34.13145146284811,0.23709092235133405,6.017086909852583
4.940400103204696,0.2887837490196018,-83.91405768630807
-30.04837960958779,0.19099889667394368,-128.07235992641822
-2.9398785405607795,0.16289203457870738,-425.1867231821453
9.071358348073726,0.15429869198059706,-249.97586015474567
-22.876212841629346,0.22688075526258397,30.521642455753806
41.36048907857342,0.22907414951215546,120.4912443017202
-11.943929375387519,0.20856256364940198,-668.6725152786719
-33.25034707941055,0.19099573781144374,-64.71542906151099
-18.351859076876572,0.15194656542153007,-129.42092947217841
-10.595382386976029,0.1417702536536254,-283.47664374186695
34.967354753231156,0.13150042248129284,-197.32071504459742
-15.916003510741362,0.2509976348539488,167.84436631073544
12.230124633561443,0.1591898969785,-129.99046845633464
1.880466996826907,0.19953446120406915,-22.18139034873903
-2.9634037893710325,0.1723636479466305,5.594585099537168
-20.388285720914695,0.16631654966976206,-197.76396503312844
-8.015439132658415,0.14133326315582045,417.7929046483415
-3.8981657078379524,0.20888934869959977,-266.0288933945172
50.56536219007755,0.1554800054375372,-31.581730627522838
7.245376268536214,0.27255591423987036,-114.82784005987486
23.588654769046947,0.18056462310491606,-5.9395473249133035
-2.348074466759996,0.18590048641525378,123.69894750756667
-22.495900902914535,0.15448493717280526,-103.31052915289365
-25.216313727966412,0.24384543827959126,-288.14473794598894
-12.285687152152974,0.17656342426455324,-47.963720633396
-6.1489817421333886,0.23504348704494543,61.339151933340766
-4.9396605331387375,0.18803591258240016,366.15309068387984
18.70553136640669,0.21830103914899024,301.3009971144788
12.056802947576228,0.18192499622208827,25.397524492926593
-3.520229026095442,0.22715129341111862,-313.0818942424439
27.327514377149594,0.16642184665476717,-474.86840169818333
12.834535994741694,0.20317372030272682,-28.275745730284186
32.664614544358514,0.16582242354962862,76.83399000880351
-0.168935546082882,0.27666496724580836,236.35636695935494
-15.031880497161561,0.22862783124656277,-25.36967821379456
10.650959432064633,0.22594434441728112,15.72206240622897
2.9761737937827033,0.16059335436395505,259.6429217487623
-9.771960277973415,0.10305909911813523,-150.90751776553628
-9.089711997772815,0.2224229185426517,394.6049569948927
12.597888137206949,0.27634506343306403,7.940294032354117
-9.691400807361992,0.2177048138298733,-151.61263663140554
-9.443331191637894,0.30191051967142607,-11.922503418040224
-38.58128109573046,0.17164274772786664,-387.7920111920258
4.851469744005209,0.25849225908303647,-45.13723002788835
-1.3263976298848668,0.2107595543516926,135.46966166332524
12.796856139598308,0.14890641722390754,-138.50411180616396
-24.024449060126592,0.18129346427982165,-192.21250182322828
-15.546114724121768,0.24327424112413393,-108.19845030674531
-46.766383927435164,0.1145854476122175,88.04551993603064
7.002616137797121,0.17914286310777922,117.00385986809574
-3.441916322471266,0.19129824956164443,89.79241719340928
-1.7231010035511631,0.16539964638317098,45.843733756793895
-24.458358380169223,0.09974287618558918,-44.692531839054624
-23.697005784612912,0.1917318282342784,147.30314421267693
-12.7911470502521,0.2599956415445979,-174.76278285937795
33.93069813828655,0.24290661209731024,22.75984060791605
-3.720992616132403,0.25216457488302174,221.86631604054458
-31.60973931314553,0.15646775078377237,-388.1068847759627
22.279002657638674,0.1549067088043168,-187.65862950979408
-29.16603784823083,0.1455408467809852,-81.14988233550245
13.269321215052074,0.1911790868595084,-308.5538762705095
12.775297074474892,0.2555428887926493,32.281292289967105
-22.307974068071978,0.23615043953404424,-218.48363507251665
-6.890147338784267,0.17177706746526328,-59.849152510822236
-24.093907827164077,0.24111353312837966,-27.861665968527717
-4.434566745970988,0.20197336141983543,117.10762385763007
0.33945725270482807,0.19891933492900615,-59.64471409183515
-0.07906222641600734,0.1764709578495569,134.51823365981812
-22.94210186654133,0.23703900222257202,226.86124544778994
-10.259722587227586,0.2511225924078264,-213.57346701312693
-8.036189923133733,0.20906677203474255,46.35662247932877
10.89024873072357,0.15739103726442938,-93.98961238637611
7.188450804935556,0.27632253761105424,-348.0410567129483
11.702831665715074,0.2978439711074154,-186.84674714154968
7.914277631878621,0.1551770079611723,249.3144801744855
-4.879262705868497,0.18865270526884548,-15.269945768515464
-13.98080121153865,0.17454382445702407,-100.77545804111645
11.40335863834499,0.2977463503432299,-683.9610677290202
12.703911818666588,0.23344354392088135,-15.573453393711551
10.854395404080462,0.2579302962565213,183.91641549877443
3.3287237619147687,0.18543539332843406,-284.25228526983585
-14.47156799922851,0.2018598162604727,-244.6699333518564
14.672662904723804,0.19175044689547627,45.76409038956124
9.515416418439564,0.1997420417958949,42.93738878368682
11.124414513877046,0.14543796033804338,157.5205408955554
-13.624433385312072,0.2518140853924004,77.49162934042062
-8.812618281125884,0.20329339302779967,-42.357307833083176
2.6593341459118056,0.20889771967102436,236.6535898815594
-10.306049265540505,0.25479363628199514,-404.9338372942561
-10.906780535292004,0.20172765387781885,55.30782922440175
-0.7619887996188639,0.13141012358384813,-142.18726578471816
-7.449291443688219,0.2823429115358358,-93.31428920798209
16.81635155701519,0.10010819539357013,80.16671191932197
-25.109748207640912,0.11439395407340451,-334.8945255529635
0.3603091540973668,0.26487723625938386,-124.15067306437722
4.782441725676592,0.19593508043711275,263.5982002658496
-24.46335621440827,0.18248210079237043,312.2931817687726
-57.22325229161308,0.21849392409250842,312.51888545349243
-34.228797046783704,0.1843376456802565,-393.7878949002967
-30.242839981122312,0.1988093664525191,172.71998033211494
9.424910613979488,0.1289242860512927,175.04149693066967
-33.554811949530226,0.2552310398714229,-35.54025192348508
14.884250969340695,0.20742597541980662,-143.54129311449753
-23.196703601731645,0.2953938042396349,62.440307411131776
1.9716123588625678,0.234571111167059,20.49583879829524
10.128333473385727,0.24483378274489703,426.91653360786523
40.286564004323466,0.23292250636399364,-297.2196772243841
45.63837150840446,0.2500596670123889,-352.95544757493127
-21.269561115467788,0.22575606303329926,191.13889144898263
-2.360849159432216,0.15649354110391547,-88.0790922980912
-14.691306783919272,0.2349681160951565,136.76105966210878
23.54176221323002,0.21779696619286523,-19.809769488732712
41.553137543876744,0.1835056997453447,-25.336173966605198
-8.025933738354835,0.18794361098100176,-52.97032455656079
-0.4161258966880566,0.2404650905794955,364.1430915683445
-15.86691513306463,0.17209257589961746,492.73743015902954
4.717883321378369,0.22981008285508492,115.3035126166206
-1.354056407091968,0.22962443879636574,-55.093360702605096
-4.157927477818851,0.13900225017941098,175.78219595935414
-1.5668851770117431,0.22866847053338615,-132.60037834891588
-4.710117716960646,0.22709241473836494,-194.53546413620376
30.5535755988314,0.28937490941438554,-15.003292257439654
-13.87314415161886,0.17035651718228648,215.05887536229386
-3.8066920411674894,0.16670489254452608,236.97512548268756
-42.250138025346374,0.19623914194045416,166.39632033876742
-28.97105473585639,0.13213507393415785,-148.66245671921075
-35.57502792358277,0.2600450148713367,-166.52114351878143
-0.8709576862097488,0.18493107880447415,446.8402196025262
18.076406691799566,0.12837783230361263,264.25684703648375
-5.4945732701495364,0.14319318943807097,103.98681032830453
0.7355156253158128,0.14920167168371218,181.1018278292492
-21.68869185539204,0.23466703148882245,12.777054764949778
31.62874580610994,0.1834691208808544,-423.9171929016207
4.89382488829813,0.11933558635190973,441.9416845740659
-18.77554240746955,0.27552500264779656,-187.7694823007728
24.808309992329765,0.2375983088308451,-176.11316248045264
38.88183326091105,0.18836504542731217,-172.01501960329486
-8.494003485473854,0.19650718945238937,-77.95166531208818
-16.284535521683758,0.13545121319423076,-197.4098306562056
17.153721813615196,0.13951041760243715,-134.64251269265017
-22.187530237251863,0.16043456777654236,-487.7660923207668
-23.895615851817908,0.12908667902162863,-143.07541021563458
-19.56589811641403,0.22630512427952712,-94.44204849114735
1.9565279315105186,0.2913238833171342,152.32313002535506
29.06543609919448,0.12550776519524376,14.570465796557691
10.636107972296312,0.24998492749913465,84.494838339964
11.937884548878568,0.21147484227029406,-123.53326883055948
5.750069531901273,0.2946737033935346,84.14182652350792
-8.0088515469922,0.20420702543841715,-106.0327084156173
26.89762208718628,0.13002633548316717,92.0050982179208
10.192463205739557,0.2343932522351787,-155.4566349757369
-24.78762938443836,0.13674225833504763,-131.0444529588292
-21.46560067148688,0.18514223371235985,187.05480758598281
-7.525074445937269,0.20335870527860367,9.413188284030468
34.23927801016615,0.1721741802689134,64.23099999958482
-33.07916509605204,0.17334686082001546,-53.4246441197775
2.589816621131989,0.1449635820536216,-422.1553815675146
16.59636778389573,0.2226899535644589,274.2765902383241
-13.98044143153976,0.17223609962226558,-53.44385548958898
20.460054469800582,0.19345632132710885,120.97927379695584
-7.0150459238057294,0.19601615862430086,79.917266525517
0.13101010376026626,0.268521354059013,-156.05936237631153
43.85232937695833,0.228928354209454,46.77813008804042
-35.42576819452407,0.26235821773973667,239.18227972122816
-9.153041190485336,0.26746143760738533,-94.43799972355453
22.53780861040788,0.201621703625837,224.63425803881242
-40.076676341335535,0.1769313889530418,60.67242868052296
-12.50276205011585,0.1857626872454937,-98.15444755453345
-8.16277073721187,0.11903903467205335,200.53234570769033
-29.56207633054631,0.2055806951593317,-126.4857577464044
-37.43520346340655,0.31047626319316746,-80.95440569747255
-19.62678569932918,0.27486923128633733,-266.43277098886415
-4.791853859695147,0.21308015127816463,224.75740647271377
25.572338402400327,0.1431549164977331,-401.0132912086326
-24.49510610729401,0.20999744957132538,78.58491205475349
-6.16927394105093,0.19993108761403688,-90.55649473045416
33.36855186482515,0.189440671893644,108.30513885860044
-24.735370293963488,0.20192500630536198,-75.34063473577181
0.7057455420702448,0.16566242312504825,-262.87687358176123
-14.614829629303749,0.21349963454858134,120.15352412222747
-18.77530258227702,0.23817746521521588,-398.13053767987776
30.321674109859348,0.3483118381598569,180.63033980746576
-16.5333133014319,0.26179214275361884,14.117741076017184
9.392659482016835,0.08997097876472891,72.75705817319508
26.072744323222423,0.14293681648977538,-380.91541361849994
3.279487933997889,0.2261517309660334,-37.615563174188324
-30.23705141174354,0.19523747448349543,201.9852223991702
35.85201300357127,0.12805733310490705,-256.331973917318
18.857282401363317,0.26282184247751084,304.1887619194726
-31.60387442894595,0.16808797941552292,105.59823411738236
-10.07965860061353,0.2266151311702121,-356.12207333794237
19.694592722883232,0.2910663781687495,-80.14294266771567
-11.248126125287492,0.1965882944531736,-119.14695737211068
-14.529249118146033,0.22769065064361552,-204.45049697582417
-33.09670194170831,0.2112270698840193,-35.821886028381
19.527332136413868,0.21229558183299732,61.443555058339484
-42.55027474375503,0.11922998116089566,-182.03930054097933
26.80283376993617,0.19081877520726154,249.49965393852432
-3.7490121308962543,0.2073021694401432,-215.86711272830814
3.929998172790082,0.13349669754762095,202.67563034833955
-16.446569155202827,0.15844144003298605,-32.99931947772257
-52.07685388310416,0.1719752462322799,60.14769021447012
-1.7672831656300163,0.11856615143246853,63.90832745650934
27.49939948131879,0.1195139964844949,-4.54905862669832
13.942768867008397,0.2974838494082649,-30.614626567952307
19.241983582543334,0.20852085181773605,-71.42209697267928
33.44630042165,0.17960580510796467,187.5223073295738
-3.1473827097152265,0.1825128464816629,179.36569489506456
0.6076863472813488,0.20175817080550343,-79.24785270106759
-12.0965922468658,0.2407391208978109,-54.53017396804402
-10.988676742468042,0.2011503736333407,265.3022711429877
19.240929335644477,0.1893763072563369,-95.24714235558272
28.69948150879221,0.21687015445596464,67.40156524026911
19.707564761764125,0.2640499607334384,96.05302227977003
14.828305975264636,0.2368613090952757,-349.92983143666237
9.008112693633072,0.21752029166853057,228.95349334593283
-18.78498555575726,0.10132470984692325,-20.449726105708496
9.483381626485187,0.13870861508652327,60.62481122330121
-21.514536806371854,0.30787600386195735,156.16575189149535
-7.345761055644231,0.3352624064494675,-265.9198254397593
6.060810003768742,0.19065734779724114,21.230127073958975
5.470993881853142,0.20385885836029644,-235.79794500416554
6.426752399035128,0.15342637308043516,-70.08987658226519
-27.787450118281697,0.128132037307431,89.6258202463582
13.135184221548048,0.26527073815807967,-189.43576004821628
3.9473426799785383,0.17435895294462714,-145.67087511115713
1.975022289414016,0.23619057596222193,-31.64795841870076
-11.358903112763182,0.1438770228624728,-222.31951442628542
10.727307121484335,0.21724532092574378,183.88630683632965
26.73168661247612,0.1896596076726998,-97.17210538833282
12.35118036914907,0.1812940348546429,8.370335883787703
5.696382908523079,0.17151292918694785,61.52496588956189
-40.54197502667195,0.14914448524951365,-4.0859755143764955
9.395251798318307,0.12964487219054874,154.6066635303155
7.755011252982381,0.26950832956183307,242.69118564717584
22.849216679776838,0.2005123027244254,-345.52942905865115
-49.41568634081635,0.16990651743368518,104.29738824850818
19.170135640167036,0.28532735261334646,190.09846290342372
-19.050428907274345,0.20001390163099808,-67.84055991493858
16.47285744128528,0.21596484923091688,-296.36402035901557
14.097539821352497,0.20103091325488123,-201.02759779553364
3.97138157980495,0.24704328096263534,113.4331627368025
-23.836300781122382,0.22336682335553387,-34.69746956906505
21.94764003161287,0.1688235753669208,-223.12335488494205
18.335083059454345,0.17219397508067444,-181.4012676133987
-35.492522279765616,0.1789884346154449,-29.40196596582262
17.435732253129014,0.16093211660837772,326.69955819658026
-40.596459957048125,0.16108772312778344,113.74053529267205
50.422650183200595,0.15596871370389825,180.21775493185046
9.97717770262797,0.1863928657638002,-41.26612505738923
0.6782007301500314,0.2593979271310458,-134.62360965604927
15.977222647334502,0.21268071922636328,175.64566861470524
28.275003293635315,0.19253174840867743,239.39245512618834
33.33121054634271,0.21425784202211431,-69.14257350613133
-13.02836715164895,0.13409922294903737,48.420001513408714
-9.202510429869115,0.2713376554115759,176.34814504357269
27.890874579965974,0.2778864272959954,-6.869096236483703
-45.85589524954847,0.22701941957301247,50.63108859745582
-0.15500538121368823,0.24782329317082086,-263.0412762413201
16.879986169483704,0.25415295838864677,-4.628124763483498
15.046345184724697,0.18879922715998865,-73.92806921417713
-21.232949574513476,0.21776537284077832,-103.28610372863216
-33.87208823506315,0.14618999918376668,-256.19918818276307
18.328187466214423,0.24756606367382705,-13.437943732221648
-15.300163143687568,0.19438984856394476,-28.44058551592854
-21.261271248659806,0.18927487746897179,305.71567996313007
-2.712239719866354,0.12133473772973734,-83.85935328112373
25.774816651896547,0.1813419032757108,-85.62596211299197
-11.009106167022676,0.2227069388535521,-13.902255674034716
10.637703637129267,0.15457045539541128,-310.91778885282235
27.093399824882425,0.17082241614814242,31.198192245193475
-16.689286446989623,0.21202685137212918,74.21628060389457
16.409423782332524,0.18895844939734174,-66.26305011753449
0.008936901713090322,0.32982351904289575,-275.9365627686058
-32.19123229085795,0.25358490702480463,273.1674859873649
21.677059282840737,0.15070885539092213,-204.35828268584496
9.34654900724184,0.15100683639379134,-63.53532454784811
-0.020196333434768912,0.23510595400989054,105.33396203251475
-0.49573676309757364,0.26567902746556876,-209.3828839676303
23.734835948267893,0.1943586666064794,12.7113949662524
10.838770739833276,0.18777943994521656,318.3793565289478
-6.713337929280002,0.1483407475814325,77.67581703981509
16.002447799433806,0.24604748497258896,254.18902432867
6.863741096411258,0.2430329142873413,-124.77121999855467
-20.793576857234115,0.20410592814975492,-51.40095066236611
31.2741023667435,0.23211840156686392,200.73145022318997
-18.776030405789427,0.1750224636425266,-80.99673100509858
5.965313357439984,0.2616574073483686,309.8349555150259
-15.024716201453208,0.14997689839476167,-15.973234983239207
-34.43677422981692,0.22731297749840576,437.06004516771173
-26.15654213387636,0.14375132346378042,-34.532572729649516
8.817364730099126,0.16960167229747902,-77.40650355058129
17.61021932432473,0.2775004582908176,90.3429495563617
-30.07240221575472,0.2396966091242037,-298.7558857196054
30.150728340196537,0.14571031065819523,157.109290134548
1.6850453170626642,0.22437360824928318,-227.12310414382856
-20.805240697478528,0.2153852980966091,-144.46360025668702
33.51802803175249,0.05409347930023181,322.48223590917473
4.224333992174375,0.20514167481742973,266.57731125728355
5.444502967807389,0.12165267320029349,259.32036865796726
1.6230011979010688,0.05287789697992695,-34.84379760260753
14.806804685489588,0.15695284640509033,19.674045691942617
33.67076501111792,0.18585535603541695,-2.0289178689326066
-24.05342570816506,0.25746058878176653,-428.4694110155093
-6.139000110271211,0.18426284448900623,82.43545000383752
-14.968868136401518,0.27699776767357187,301.373223544829
-2.7310365077560395,0.22673645602595072,116.43520034186044
4.251486249789197,0.25254534826054575,-52.86792140704254
8.545870803011796,0.22766979081366215,151.68211420601847
22.018433026306067,0.24110198583946968,-52.77933949237561
34.589775951612545,0.11857193074705416,459.2265223970811
33.341461636344064,0.26181408520751626,183.27604692036044
-13.952547278362513,0.21146081034662936,117.38029085751023
-4.13982207413375,0.1920257819173377,-66.63305429372926
-23.315419984550566,0.1317363726130942,44.06948042188786
-34.72400606274567,0.15565133267907832,-77.20151445838746
29.258717491152147,0.12915489851330236,152.49343267007976
-9.306310734440439,0.16953499027695415,319.23081274245357
46.29736055071214,0.24798976801938868,-159.1059039459637
-5.931653973168725,0.14334971796012197,69.01326187552111
-7.685490069209589,0.2583874657435757,-227.8913803806764
45.52385758322671,0.14383141750024953,314.62138854071753
20.89149433731363,0.2370674466198555,-111.20084785335196
-10.447636802448766,0.23205568120016806,-145.83656617829703
22.79496897560408,0.16571319452414163,196.34847658487993
4.208606837822239,0.26545250534428017,72.15132276698091
2.3869276402660287,0.1599272042020437,231.34430658730682
45.692177630655934,0.234347772649564,-234.6517546955655
28.519637279405096,0.259985583067959,-106.9707082711487
-19.85266145633378,0.2538753947774212,-7.858395123985041
17.528666257539665,0.2323434150096877,207.20184554449008
9.091245054795861,0.2092012523830584,322.1584008537957
18.990491277920224,0.1623885961640417,147.94219680609743
-18.409674372021506,0.2856124903638394,88.61858027305308
-18.70830006571062,0.17745240441553448,-17.179031165190985
-30.900702267852424,0.19709239792463285,-237.49460365939177
17.17123058925837,0.15086870386184903,-12.080393041243498
12.963652106708563,0.18956352316375977,-177.19217584491187
-22.381907430765015,0.23582915486921566,303.3383162381281
9.49781797715434,0.13198153121867195,109.54645670215326
39.49538971044211,0.2504484498704586,189.46532922693896
9.299816335069288,0.24309820936058682,-231.70626319323685
10.030679522503053,0.17373742309053258,133.1300786989832
5.2451405293776805,0.2531217344605108,265.24639343999024
6.397600211077958,0.22143481823771416,-87.00368580178001
13.916146326956083,0.2567793387736589,153.84444043473616
-21.13938914842639,0.1218295514677664,-82.26639158990827
19.773294711960755,0.14511629636142084,74.40211934318842
20.279889062644543,0.1950476806302133,-110.11285934909442
8.101786647431608,0.10657214642105445,34.11046762549228
-41.84397011788167,0.15361212372023064,-228.34826674667755
7.458147778960464,0.23366824655361115,-196.7162686595602
-12.707525548905865,0.23096392590955803,115.29591910609666
33.597581024457206,0.18158222643048808,84.23006931274027
-25.379960341574368,0.22112755528042144,-224.16402326974486
-12.26383393526662,0.23660465411405981,-179.91700505480097
-15.098672177274782,0.159316409264819,-7.175700496037504
5.60742975211817,0.16113074766812102,-4.632568610109001
-8.91303939394891,0.19154847835452027,-111.26408553856469
-4.856373172871099,0.1420629841145866,-389.5427634152045
4.644599186733725,0.16091691637567834,275.59108043974
20.736609223559654,0.27791913950328523,328.7392733340777
2.654606578043224,0.18702926777194812,-192.91498905795922
12.309457233280979,0.2206079520365871,88.13839215296736
-51.12824348189246,0.22632868541428972,-83.0847109832289
29.90383256618078,0.16976330043660684,-135.29553615565226
6.729342918949792,0.21450067772636816,90.27245583812974
-11.142647775024992,0.237722353250508,177.38734320917223
10.663832228776851,0.1709080694834413,-59.34254203176972
-7.077935964315572,0.21554344263338718,178.64676706719408
-11.716997762382253,0.21653312783807907,184.30501173071937
14.59707186977286,0.19201391019097908,-330.0555499354986
-6.085107491684376,0.1055978433202763,-62.433365437867195
-23.362625099004653,0.15084556130764884,-140.12831055533184
12.45506712799116,0.19299692242901875,-49.17290463534314
28.242507101738433,0.12642544407762946,-191.1197546530429
-10.896908015517218,0.2116627018899594,-193.15000301361607
22.803240993124096,0.2203908822435524,319.8252503567443
-60.835171862464776,0.1685379817507591,-106.66384445272708
-20.374275598814243,0.3562097148738992,-144.1393897543479
2.9324579897486363,0.18884609208305142,-53.67638957685861
-27.97308072046189,0.22481030137215943,235.46909770973494
16.995045107402976,0.22427289381907672,-176.56335590672566
24.131025539524348,0.11520408554126937,-57.779653201283054
-33.43969949839315,0.1261413040388738,-233.70838330680138
-14.48442137967267,0.20469682231366054,269.66226531608555
3.7130378798479633,0.1315408178303753,375.5942178145427
-20.975332105551775,0.19583011939047426,69.78414722103584
16.437426036543037,0.21964266228726032,53.90422870588285
-13.275742753407556,0.17959105982926898,-268.8559946890663
-26.16309577367588,0.19853055224245117,-280.93776183131314
-12.34440430106333,0.24735234575611717,-102.95352050170601
48.62221727478355,0.19620224354623558,-127.13114032433164
-34.72310076823115,0.2676389527577833,55.86803238238426
-7.871047300900801,0.20168465755737838,326.1299572140588
-2.6897025966462413,0.15917959545630478,-313.37583958165044
0.3638230130938538,0.1356013216202841,-142.45258869176797
-40.87008565920176,0.18863733477207995,197.21721919115063
-50.22702445978965,0.2802415788906467,-193.07947839740615
14.02855719742686,0.22850072397989957,121.70081706745279
11.695892869269418,0.20573229333040008,422.8879381348187
6.279135451919164,0.20387933919870638,100.167405320156
42.15513568823711,0.2417283265506095,31.184340452386035
4.277117163632064,0.21767465503229774,-299.82834750817744
-43.348267296204206,0.21874464472583485,-283.08395514567957
10.399283681716227,0.20623977619876707,-142.02013135486996
-22.949392726861582,0.3363630213067083,0.4955519769272311
-28.914406590050813,0.17350345357544672,-119.83975938035796
-7.672372465498604,0.09271940195822724,-103.36147973309244
-3.555772461247467,0.15466158004020317,-272.6520561265395
9.480677471268557,0.24368568357988227,57.45008365405202
-3.3802226379138793,0.19386850120549645,-57.402417627803196
-28.967116359373087,0.18731782600636476,313.9535964685311
-17.249702638156936,0.20695010939885095,161.97263173674864
-37.45091121866664,0.16499938932981337,-364.1325322195677
28.829740412195555,0.20502804522211807,182.6515631618886
22.378509827591873,0.21257515927920953,116.15664415578635
34.16258705508393,0.2438965246504518,-91.61282554572416
-4.25688072363509,0.2045234900566574,-282.78467616972813
-13.966142268904463,0.23317557670958808,133.4612429165133
-8.189333462451136,0.17622334471659146,-158.307266768687
1.892420197072996,0.13058841079725975,361.40425167365817
16.239588019949235,0.23639868570419495,-52.7713356571707
19.81754542429292,0.29723191389718195,54.89697813373353
32.28643670935189,0.17143141283331675,62.24229212286456
-11.953805593499663,0.09178013734133879,-147.38415269062634
-16.531686351977772,0.18954739578620106,-109.86566686450713
7.928933782327011,0.1329108855045087,-198.02744490126366
16.927974866083463,0.25622498569105073,69.59064342015641
-32.880255301423745,0.25120400320409897,-143.0255447187431
-20.433968952444197,0.3246763250153815,201.65670802329342
16.333052353568686,0.16654463426956023,323.81341478505254
14.737981835731269,0.2100855014027846,43.02107425203981
-3.6110827436928057,0.256892154239631,-85.04284522302041
-0.046740366771319826,0.268414697619887,75.34295914364976
61.46073876641617,0.1952297966528371,-377.36853428352276
5.910863075273137,0.19505302443865694,-91.26918517436343
1.9713773379737534,0.2577543639632726,-99.20026735119156
-14.62017314524362,0.2549879401300569,-116.45037359632624
26.2317351856001,0.2478436132587688,291.6830826602149
5.026473273525596,0.1569812585724749,217.38188879894102
-18.697530397198094,0.15343697136460768,505.8012145675568
-8.746850145763428,0.15082419783037504,95.99112233515189
1.7091645475515482,0.17513251600022148,-25.047278785382275
-12.562799686645592,0.07299524957553383,-52.45905538105974
-18.318531477182486,0.1633014054560683,119.92345130548708
-32.39288409649136,0.2601806084046201,-83.07351223930944
17.965671231583972,0.31145539928249555,198.51180339257908
28.417634933070097,0.24818463816324365,-273.20307043366745
12.135801246314122,0.15003365651323133,-246.66153480087436
20.334120024052073,0.1280751359692135,-306.6739672332389
5.086499004887895,0.2113607411496343,150.8081967459357
8.587686291436933,0.1673841435468872,90.29989288949835
-0.024493980750060325,0.18429289732316426,-381.7834763588285
33.764553946159246,0.1921926217334526,142.2555594084548
29.349178496283965,0.18399515295820779,143.18473641578225
-27.296389601408926,0.3293225793347151,97.31955779679578
-6.560812765416984,0.1786403192955459,109.58912702203698
-13.494564218577503,0.19430971761346783,-410.96459825092745
11.333476860751311,0.21764111620264104,60.41198440196423
3.196952983323083,0.11369848940410057,-17.451528928690436
0.8091758704132473,0.22394103813602806,144.71396084256207
-20.564739411448553,0.23789040197945396,1.351480721150792
26.977490963911045,0.20194019805487018,-4.465109708472678
-31.84881880879515,0.20837432231732414,-328.7031215921768
-3.9096918144025588,0.2052828385010287,-77.92579305357708
18.059389887595316,0.2534608466239019,91.16125497043961
9.538246406851794,0.24090553294793773,101.08110893629205
4.406074893281941,0.13912407535883017,104.47515091032507
-10.227669476626067,0.19113637579151496,28.77944168017316
-11.114030940410554,0.23537215466341893,196.36044952235477
-17.23391583070494,0.2577163010664279,-176.93471004459434
-11.723153349339665,0.13205528345283263,10.608558356638632
-29.490668387294107,0.1281296867487114,145.52159798700706
10.927283961378638,0.2703631497427182,-1.823364322040658
-12.660949838920668,0.20143213994902573,-308.00669625633105
22.079139331167013,0.08508264679903613,-3.7975717638038935
-44.01983460770921,0.2106607208564608,55.99625818310928
33.26131995327812,0.26734555272331306,-61.503231005578904
-5.285725800252178,0.23350791847112568,-41.895018818649845
-41.39267826878391,0.27427676778277105,-196.57117233107635
-35.46259016089789,0.2358588372529182,362.63700363328934
7.493704636552528,0.16926219469348036,173.31852620062432
8.607834339929854,0.09263289650666556,92.97511073503597
19.354556142238877,0.23052982343144757,114.4602955495937
5.632947481846072,0.19562894227881322,-160.4907955540943
29.39133628754748,0.2989371479846145,-138.40216608276407
4.7642256354832435,0.2715452428542844,151.08403735698732
-8.788045663554824,0.2692750556997628,337.9382412889989
-17.19938718497125,0.168483366345662,-224.24540152337337
0.6672530155537337,0.10227594770217882,-58.836922670003155
-2.6828930459258626,0.1529971989007197,76.54901699336288
4.787946916699475,0.1949431553876247,-46.9694059091951
8.49984962711145,0.18873435193040156,-23.324232688257524
-4.036087017856991,0.218818285275285,-23.48312081471116
-25.70033713488069,0.20878489844521703,-199.75849803388104
-16.55624783667766,0.15877228471806992,-117.11375921569046
-0.47011050329475307,0.21859175156596686,-66.00100327178676
32.61316309250775,0.327229663067521,236.23215244499
39.60317237553865,0.29340964801362895,15.973900340181876
-2.1428267464922968,0.23666436326481047,-257.66985080246076
-2.311477812137574,0.20970790628929398,-183.09365863890932
-3.332536453512012,0.24409520220920322,-53.49748503598231
10.168508561852558,0.21576570689030583,50.9758135431108
27.694797719220077,0.15943387839227338,-310.3778303522043
-10.613849021379432,0.26205586617065135,187.95805947991613
0.7371996023546299,0.22729501627666257,403.99101781304194
17.373282769793637,0.2850234765666962,-44.016156503824604
-22.485048123626065,0.23059766256324232,291.8110538191924
-13.945841210541086,0.15165826100376503,-183.9031298320935
21.140640803704002,0.2238356274307103,-365.9276303688974
5.994574268852323,0.22971246688791652,-460.9819574321585
17.276600316498147,0.17847626365545088,-20.38201055757593
-7.678232981314079,0.14689390968391144,104.04107206710947
13.762059343033231,0.1885958260942654,-289.56729403691907
-43.99454625225709,0.14036187172825118,89.85862924768428
-7.952228267065803,0.21959487078357998,-307.771397366438
8.090026930303683,0.25664134613207035,269.921065666104
-13.070241156543666,0.1889725452570086,190.3675892211848
-10.155629666277726,0.1936537407006126,-107.10316453300823
38.4245026367211,0.24984520111629765,96.03767604745633
-0.11956792920934148,0.30704413868678365,30.352255243979414
-21.094805110233345,0.2099790256762272,180.97446829570586
-25.13443951069377,0.23903039773492005,343.77083912235594
19.368462534109213,0.20307677119935982,-377.78827770181755
-21.991012183720716,0.2612794605743119,107.15017497163612
-12.657393306892619,0.17021498791726114,67.01246607707454
-12.905256870293119,0.1410267715768588,-325.2519078509559
5.152471350354318,0.1903703421811574,273.79552239211665
-31.776355171687605,0.12594472473140988,-397.04909836255456
19.550385581279997,0.23494311224615844,322.05427855728647
15.3895513320534,0.14514604842605283,18.762300427897223
-0.24265248382809346,0.2107655835572277,-15.978450462165233
34.609961794511754,0.20042113520570476,-256.3828607933879
-9.867513576683402,0.21284692971535218,4.123553612853521
-14.7983480944474,0.29007017115014655,-41.06022031135909
-22.10981027652985,0.213851618230642,117.94931347500346
-27.331184101901126,0.24750568816607402,70.89202847791341
-10.125378137566493,0.24448690743352863,-178.6390846952841
29.521161778183394,0.2186047613230507,-358.2886174984535
-5.02790417185191,0.24244253073287778,-344.27408585778977
1.6851377373368095,0.1642149055057327,-18.664343293105404
-36.77854792634411,0.28014715104275845,-121.07973544811979
23.386190923241564,0.13558220789011372,-125.64687462865149
-30.49973973897981,0.19188625044750718,322.7629328185198
-7.2227640911674795,0.22853781382274269,-282.8524147601309
-9.39922257008612,0.11743055131235074,-56.83933633931224
-19.356390458907402,0.19188620264396528,-48.1410660107352
1.5770491767639507,0.2084440493294167,-4.97352647613693
-28.349693838578602,0.25806994862379434,177.24546349459635
21.229793898002512,0.1533983293062984,151.47806988571497
35.59542378756633,0.1846447855698069,-118.89520713080015
33.48676152694024,0.1265636901105741,-4.065113683456681
-27.012564788088433,0.10533040283625716,-500.9618485044045
18.62916784504864,0.19328349195452812,65.28184689030513
24.170305467104,0.26292346213682394,147.73668483193302
5.691027745506942,0.11396759427503753,-189.79208014146485
12.938438149949505,0.21924661689879407,78.23980462402814
1.8802810908838503,0.23119106848949827,215.33105002625524
19.263289643644256,0.24306031211765428,137.77208909586477
27.457031548461927,0.25636974619094616,32.79585186761527
13.73825734248468,0.1562343159455158,-127.66413501138236
9.009221532096062,0.2152287354732319,-139.48310605928432
24.427330212202165,0.1434603620050319,202.57377106786677
0.91420271148761,0.14319546155885493,104.57128569933411
-21.358695611463766,0.2909914551007964,226.92864763637635
18.67527611655476,0.15849760238920801,-305.4067508516902
-14.330172100484615,0.1568823850163086,311.43283180149825
9.293237476687922,0.15453549597449281,-112.97744960351143
34.513781436042834,0.196410035466603,302.4604319138546
14.167454344703188,0.20437130586967728,-120.78882696986439
9.236831129409655,0.2467969013103331,-29.479493894021005
-7.227635441997613,0.23500332690587478,-244.27811385350208
-9.408751278702987,0.1958871657246486,388.230757742089
12.122041418290905,0.2009420529853021,-293.8436495144651
-22.483756474350454,0.16981229084007263,116.55198352016704
18.146387911230974,0.25675495692511513,-65.79452758007179
17.67324538560822,0.17395363544749903,238.07871003374618
-29.127426115580324,0.18740714878095227,171.4748618843237
11.036820689061795,0.21124497461803457,72.11798273638618
31.034477836676423,0.19820137972632604,-50.71690567174374
17.37224447795509,0.1103646859101768,-310.21781602510623
-14.418202745115929,0.08765503992405477,133.00970743030024
0.9470215813218552,0.27227147992165796,140.10880576014324
10.655308501767223,0.2778150576011549,128.69896915437664
10.768417728111363,0.1290294068074106,210.76261815464653
7.101316275661647,0.2645730467895671,7.263172481815776
-0.3652974874949225,0.21689374231033967,-128.18951001435696
-17.343095027546138,0.2412345202926873,-55.061868199575194
-7.8043749482411995,0.09516258910193374,124.95144778305361
10.414045069406928,0.313088685254359,-150.6848759310126
31.008886065350183,0.1926824191162185,-126.89717878251938
36.51042440766974,0.20502169757465008,-321.5106216721567
40.32925791014479,0.2328538136527818,-207.14807089532707
1.6485124827610578,0.13987152663465405,-386.11155016860295
26.80203569503465,0.23163401502862108,-39.27508147942176
-5.432394642623178,0.2767432558314234,51.72677793265748
32.0641014803986,0.16138251060628123,-137.15449893938063
-10.955150372994362,0.2010678345391226,103.595872365519
-11.600566257175991,0.17617898245629401,-147.8799819972614
30.20389436787381,0.18248528185650612,660.0241782846635
-3.990744978738044,0.24247704716092072,96.78216331568666
-35.829801072964415,0.19368605596900848,-41.276446468550624
-6.986889989990171,0.16997691477153515,36.187877849302744
-6.151392823342099,0.21120742850340535,-71.91948290812546
14.44497594033664,0.14087444959836992,235.14698555781038
-1.9559927729309599,0.16924322181466786,118.12172058460526
-5.826915092022013,0.17843199530577958,-256.4016625253265
-23.37074412956067,0.16945775671965502,-69.79818832841403
10.545279397988947,0.20343080750790285,16.602264252867165
-32.13928950904308,0.19052978563061607,-106.15153564454482
-7.481221915261057,0.2951232980896281,-394.15896435196873
-2.6424642393759683,0.26789979158820476,-36.377755279979965
4.570227132284121,0.1838523133448748,-0.37595721537437793
8.036088430129718,0.19184891416881308,-320.3055805147486
2.3726525001946035,0.20112244630518208,-215.9832623229201
12.728989046793567,0.2863237487852286,-310.9737932415864
10.242104879095406,0.15867781651970053,243.50773184289199
24.976672003173928,0.2027694953451046,138.92085410429843
-47.20034202550778,0.3066385160803743,-222.52906774266847
-3.9865995853793916,0.19083365564333898,-146.30463179859262
11.61146836259877,0.2290182674920368,-48.815447466324315
25.431868223039174,0.253381283288956,-37.86164215437547
-0.29639212029268674,0.24089811898897068,311.4363736945641
31.192831821187916,0.24993611517895584,-61.032102755312934
28.33920021883944,0.15010854058728199,-86.21202502644527
31.903349738869103,0.22182894829417876,128.15783225127578
9.61165133348712,0.23843390212592255,230.70898868189036
26.59267437598844,0.18938206870823315,392.0429344487782
-28.321718473005536,0.15304574163581827,120.90203023541999
-7.579627867339475,0.16319168723140054,-275.75895684496084
-10.265996593246786,0.18146181043805115,-222.7884242703388
-22.70879565333052,0.153219225916093,189.88559521538102
5.101579203563675,0.23436239661928646,-34.081193213352044
-37.53485275619918,0.13383396150882249,160.68083635905336
17.54837633946852,0.1678360199908073,100.64005480009506
-2.477720185198862,0.15509927167296805,-64.71208051426824
-20.83766698241087,0.2662457394739551,11.290628266038865
-18.484081176033552,0.1955603867578481,-264.9811815375332
4.034787175763778,0.22324869220072507,-271.3482490104585
-15.19047143028179,0.24830174305540129,272.44669803216294
-14.143633793245169,0.1794844148920354,-102.01803353337719
21.216210442585496,0.1827214919910513,191.28816574677896
-5.1964742375078865,0.23658236888390688,-93.18904915710952
-24.26829809288349,0.24103769384680584,-372.3069622678362
-2.6723970916032007,0.2041668297495122,21.355219054471693
0.5687517457619041,0.17504830470679905,351.6500978726938
